374.50 4.50 1159.20 0.00
970.50 0.50 1171.97 0.00
590.50 0.50 1206.17 0.00
998.50 518.50 1239.35 0.00
770.50 2.50 1240.89 0.00
764.50 6.50 1240.95 0.00
760.50 8.50 1240.96 0.00
724.50 54.50 1243.22 0.00
392.50 320.50 1259.27 0.00
388.50 322.50 1259.29 0.00
394.50 318.50 1259.30 0.00
380.50 326.50 1259.36 0.00
412.50 308.50 1259.60 0.00
416.50 306.50 1259.62 0.00
544.50 340.50 1262.46 0.00
734.50 288.50 1263.48 0.00
708.50 264.50 1265.06 0.00
476.50 296.50 1267.43 0.00
424.50 388.50 1270.53 0.00
436.50 418.50 1270.75 0.00
706.50 390.50 1273.01 0.00
806.50 716.50 1273.11 0.00
772.50 436.50 1277.69 0.00
810.50 448.50 1278.88 0.00
812.50 446.50 1278.88 0.00
786.50 470.50 1279.06 0.00
796.50 462.50 1279.17 0.00
810.50 890.50 1279.30 0.00
832.50 924.50 1280.04 0.00
858.50 782.50 1285.90 0.00
680.50 718.50 1286.78 0.00
730.50 574.50 1287.62 0.00
910.50 808.50 1288.13 0.00
698.50 648.50 1290.19 0.00
994.50 774.50 1291.69 0.00
998.50 856.50 1292.06 0.00
970.50 794.50 1292.23 0.00
542.50 550.50 1297.92 0.00
530.50 580.50 1299.13 0.00
362.50 626.50 1305.01 0.00
484.50 712.50 1313.71 0.00
438.50 726.50 1314.36 0.00
440.50 974.50 1316.49 0.00
330.50 772.50 1316.51 0.00
526.50 862.50 1317.32 0.00
538.50 850.50 1317.55 0.00
384.50 758.50 1317.80 0.00
460.50 932.50 1318.05 0.00
426.50 856.50 1319.17 0.00
332.50 826.50 1319.83 0.00
446.50 808.50 1319.87 0.00
446.50 822.50 1319.88 0.00
312.50 806.50 1320.56 0.00
266.50 836.50 1325.06 0.00
268.50 834.50 1325.08 0.00
340.50 926.50 1326.77 0.00
138.50 932.50 1343.97 0.00
0.50 998.50 1371.02 0.00
559.50 0.50 1212.80 1.00
491.50 134.50 1235.34 1.00
513.50 107.50 1235.48 1.00
495.50 117.50 1236.02 1.00
765.50 6.50 1240.95 1.00
761.50 8.50 1240.96 1.00
803.50 4.50 1242.21 1.00
723.50 9.50 1243.26 1.00
723.50 0.50 1243.34 1.00
717.50 45.50 1243.55 1.00
715.50 71.50 1243.61 1.00
487.50 201.50 1247.95 1.00
483.50 203.50 1247.99 1.00
435.50 239.50 1250.54 1.00
437.50 235.50 1250.56 1.00
439.50 233.50 1250.55 1.00
783.50 126.50 1252.74 1.00
783.50 111.50 1253.58 1.00
389.50 322.50 1259.29 1.00
393.50 318.50 1259.30 1.00
380.50 325.50 1259.36 1.00
369.50 321.50 1259.56 1.00
411.50 308.50 1259.61 1.00
415.50 306.50 1259.62 1.00
418.50 305.50 1259.63 1.00
360.50 339.50 1259.68 1.00
385.50 309.50 1260.07 1.00
393.50 305.50 1260.09 1.00
389.50 307.50 1260.08 1.00
397.50 303.50 1260.10 1.00
401.50 301.50 1260.13 1.00
415.50 293.50 1260.31 1.00
706.50 261.50 1265.07 1.00
715.50 269.50 1265.13 1.00
551.50 306.50 1265.16 1.00
781.50 242.50 1265.34 1.00
590.50 329.50 1266.06 1.00
477.50 296.50 1267.43 1.00
475.50 296.50 1267.43 1.00
473.50 289.50 1267.91 1.00
475.50 287.50 1267.91 1.00
415.50 388.50 1270.63 1.00
433.50 403.50 1270.89 1.00
427.50 371.50 1270.99 1.00
417.50 375.50 1271.09 1.00
998.50 369.50 1272.11 1.00
677.50 316.50 1272.43 1.00
706.50 385.50 1273.04 1.00
806.50 715.50 1273.11 1.00
884.50 353.50 1273.65 1.00
683.50 372.50 1273.79 1.00
954.50 365.50 1274.39 1.00
839.50 381.50 1275.30 1.00
689.50 416.50 1277.64 1.00
772.50 435.50 1277.69 1.00
812.50 447.50 1278.88 1.00
813.50 446.50 1278.88 1.00
783.50 469.50 1279.07 1.00
797.50 462.50 1279.17 1.00
796.50 463.50 1279.17 1.00
793.50 445.50 1279.52 1.00
797.50 877.50 1279.65 1.00
832.50 919.50 1280.06 1.00
721.50 493.50 1284.72 1.00
858.50 777.50 1285.91 1.00
847.50 788.50 1286.08 1.00
743.50 717.50 1286.82 1.00
731.50 575.50 1287.62 1.00
708.50 707.50 1287.64 1.00
882.50 751.50 1288.28 1.00
728.50 555.50 1288.35 1.00
893.50 816.50 1288.72 1.00
711.50 737.50 1289.59 1.00
709.50 741.50 1289.59 1.00
713.50 733.50 1289.60 1.00
707.50 657.50 1290.31 1.00
699.50 567.50 1290.64 1.00
689.50 670.50 1291.38 1.00
993.50 856.50 1292.11 1.00
971.50 794.50 1292.23 1.00
969.50 794.50 1292.23 1.00
692.50 609.50 1292.50 1.00
998.50 827.50 1293.40 1.00
969.50 767.50 1293.70 1.00
971.50 765.50 1293.70 1.00
963.50 773.50 1293.75 1.00
961.50 775.50 1293.77 1.00
957.50 779.50 1293.77 1.00
959.50 777.50 1293.78 1.00
998.50 735.50 1295.92 1.00
536.50 537.50 1298.96 1.00
482.50 541.50 1299.08 1.00
503.50 558.50 1299.24 1.00
523.50 569.50 1300.25 1.00
599.50 569.50 1300.95 1.00
337.50 581.50 1303.68 1.00
389.50 606.50 1304.79 1.00
365.50 618.50 1305.07 1.00
497.50 600.50 1305.25 1.00
547.50 997.50 1305.30 1.00
611.50 625.50 1306.99 1.00
597.50 645.50 1308.50 1.00
188.50 641.50 1312.61 1.00
561.50 689.50 1313.84 1.00
436.50 717.50 1314.52 1.00
453.50 724.50 1314.83 1.00
451.50 711.50 1314.88 1.00
539.50 716.50 1315.39 1.00
539.50 721.50 1315.42 1.00
515.50 700.50 1315.80 1.00
486.50 679.50 1316.08 1.00
473.50 681.50 1316.15 1.00
445.50 975.50 1316.53 1.00
436.50 669.50 1317.06 1.00
520.50 677.50 1317.15 1.00
538.50 849.50 1317.55 1.00
537.50 850.50 1317.55 1.00
452.50 941.50 1318.20 1.00
467.50 941.50 1318.22 1.00
366.50 739.50 1319.23 1.00
408.50 743.50 1319.30 1.00
481.50 910.50 1319.46 1.00
336.50 743.50 1319.54 1.00
496.50 923.50 1319.61 1.00
387.50 731.50 1319.82 1.00
447.50 815.50 1319.91 1.00
315.50 737.50 1319.93 1.00
521.50 917.50 1319.94 1.00
515.50 923.50 1320.01 1.00
513.50 925.50 1320.01 1.00
440.50 837.50 1320.33 1.00
357.50 764.50 1320.57 1.00
317.50 811.50 1320.66 1.00
499.50 745.50 1320.70 1.00
495.50 747.50 1320.72 1.00
316.50 797.50 1320.80 1.00
356.50 827.50 1321.02 1.00
389.50 827.50 1321.18 1.00
457.50 885.50 1321.97 1.00
431.50 905.50 1322.01 1.00
477.50 823.50 1322.27 1.00
431.50 785.50 1322.46 1.00
469.50 850.50 1322.87 1.00
469.50 776.50 1323.03 1.00
268.50 835.50 1325.08 1.00
271.50 832.50 1325.11 1.00
352.50 921.50 1327.13 1.00
321.50 897.50 1331.41 1.00
213.50 733.50 1334.90 1.00
211.50 735.50 1334.92 1.00
309.50 998.50 1336.49 1.00
227.50 933.50 1339.77 1.00
175.50 777.50 1341.51 1.00
173.50 779.50 1341.52 1.00
171.50 781.50 1341.54 1.00
145.50 797.50 1341.66 1.00
133.50 917.50 1344.37 1.00
153.50 938.50 1344.76 1.00
186.50 929.50 1345.49 1.00
125.50 851.50 1345.95 1.00
129.50 838.50 1346.25 1.00
69.50 880.50 1354.14 1.00
51.50 911.50 1356.06 1.00
0.50 995.50 1371.12 1.00
11.50 998.50 1372.02 1.00
495.83 117.17 1236.02 2.00
493.17 117.83 1236.02 2.00
541.17 91.83 1237.23 2.00
723.83 1.17 1243.35 2.00
715.83 59.17 1243.65 2.00
487.83 201.17 1247.95 2.00
485.83 203.17 1247.97 2.00
439.17 231.83 1250.54 2.00
437.17 237.83 1250.54 2.00
437.83 233.17 1250.55 2.00
781.83 111.17 1253.57 2.00
785.17 111.83 1253.57 2.00
353.83 331.17 1260.04 2.00
383.83 309.17 1260.05 2.00
387.83 309.17 1260.08 2.00
395.83 305.17 1260.09 2.00
391.83 307.17 1260.08 2.00
399.17 301.83 1260.11 2.00
417.17 293.83 1260.28 2.00
413.17 293.83 1260.31 2.00
577.17 311.83 1267.32 2.00
763.17 215.83 1267.83 2.00
471.83 289.17 1267.88 2.00
475.83 287.17 1267.92 2.00
475.83 289.17 1267.91 2.00
415.83 375.17 1271.07 2.00
419.17 375.83 1271.08 2.00
677.17 307.83 1272.52 2.00
681.17 361.83 1274.09 2.00
969.83 361.17 1274.92 2.00
849.83 361.17 1276.06 2.00
687.17 409.83 1277.69 2.00
915.17 341.83 1279.49 2.00
793.83 445.17 1279.52 2.00
793.83 447.17 1279.51 2.00
725.83 485.17 1284.83 2.00
845.17 777.83 1286.47 2.00
743.17 713.83 1286.81 2.00
869.83 743.17 1288.70 2.00
741.17 553.83 1288.90 2.00
711.17 739.83 1289.58 2.00
713.17 731.83 1289.60 2.00
713.17 735.83 1289.59 2.00
705.83 561.17 1290.76 2.00
693.83 673.17 1291.40 2.00
995.83 829.17 1293.43 2.00
969.83 765.17 1293.70 2.00
963.17 771.83 1293.74 2.00
957.83 781.17 1293.75 2.00
963.17 775.83 1293.75 2.00
961.17 777.83 1293.77 2.00
959.83 779.17 1293.77 2.00
715.83 623.17 1294.26 2.00
995.83 735.17 1295.95 2.00
477.83 539.17 1299.11 2.00
503.17 545.83 1300.00 2.00
605.83 553.17 1303.64 2.00
339.17 577.83 1303.70 2.00
387.17 597.83 1304.99 2.00
549.17 997.83 1305.29 2.00
495.83 593.17 1305.33 2.00
611.17 617.83 1307.12 2.00
601.17 641.83 1308.52 2.00
185.17 635.83 1312.80 2.00
571.17 685.83 1314.05 2.00
451.17 717.83 1314.90 2.00
539.83 721.17 1315.42 2.00
523.83 705.17 1315.84 2.00
475.17 681.83 1316.15 2.00
525.17 679.83 1317.15 2.00
447.17 673.83 1317.20 2.00
425.17 663.83 1317.26 2.00
509.83 679.17 1317.30 2.00
461.17 945.83 1318.35 2.00
489.17 923.83 1319.68 2.00
515.17 921.83 1319.99 2.00
511.83 925.17 1320.01 2.00
513.17 923.83 1320.01 2.00
323.83 735.17 1320.09 2.00
383.17 739.83 1320.25 2.00
547.83 893.17 1320.57 2.00
501.17 745.83 1320.68 2.00
497.83 747.17 1320.70 2.00
351.83 755.17 1320.83 2.00
397.17 715.83 1321.34 2.00
331.83 809.17 1321.38 2.00
467.17 839.83 1322.88 2.00
441.83 895.17 1323.17 2.00
457.17 773.83 1323.26 2.00
475.17 867.83 1323.71 2.00
399.17 797.83 1323.85 2.00
489.17 803.83 1324.32 2.00
337.83 891.17 1332.25 2.00
215.17 733.83 1334.89 2.00
213.17 735.83 1334.89 2.00
311.17 991.83 1336.79 2.00
235.17 929.83 1339.86 2.00
175.17 775.83 1341.49 2.00
173.83 777.17 1341.49 2.00
173.17 781.83 1341.52 2.00
157.17 791.83 1342.43 2.00
191.83 935.17 1345.60 2.00
133.17 841.83 1346.30 2.00
161.83 919.17 1346.64 2.00
119.17 829.83 1347.02 2.00
65.17 873.83 1354.49 2.00
53.17 907.83 1356.09 2.00
9.83 995.17 1372.07 2.00
