374.50 4.50 1159.20 0.00
970.50 0.50 1171.97 0.00
590.50 0.50 1206.17 0.00
998.50 518.50 1239.35 0.00
770.50 2.50 1240.89 0.00
724.50 54.50 1243.22 0.00
392.50 320.50 1259.27 0.00
544.50 340.50 1262.46 0.00
734.50 288.50 1263.48 0.00
708.50 264.50 1265.06 0.00
424.50 388.50 1270.53 0.00
436.50 418.50 1270.75 0.00
706.50 390.50 1273.01 0.00
708.50 392.50 1273.02 0.00
772.50 436.50 1277.69 0.00
810.50 448.50 1278.88 0.00
786.50 470.50 1279.06 0.00
810.50 890.50 1279.30 0.00
798.50 878.50 1279.65 0.00
796.50 876.50 1279.65 0.00
832.50 924.50 1280.04 0.00
858.50 782.50 1285.90 0.00
680.50 718.50 1286.78 0.00
730.50 574.50 1287.62 0.00
910.50 808.50 1288.13 0.00
698.50 648.50 1290.19 0.00
706.50 656.50 1290.32 0.00
920.50 852.50 1290.51 0.00
994.50 774.50 1291.69 0.00
998.50 856.50 1292.06 0.00
542.50 550.50 1297.92 0.00
530.50 580.50 1299.13 0.00
372.50 602.50 1304.07 0.00
362.50 626.50 1305.01 0.00
484.50 712.50 1313.71 0.00
438.50 726.50 1314.36 0.00
440.50 728.50 1314.36 0.00
440.50 974.50 1316.49 0.00
330.50 772.50 1316.51 0.00
526.50 862.50 1317.32 0.00
384.50 758.50 1317.80 0.00
380.50 756.50 1317.85 0.00
460.50 932.50 1318.05 0.00
426.50 856.50 1319.17 0.00
332.50 826.50 1319.83 0.00
330.50 824.50 1319.83 0.00
446.50 808.50 1319.87 0.00
446.50 822.50 1319.88 0.00
312.50 806.50 1320.56 0.00
390.50 828.50 1321.19 0.00
266.50 836.50 1325.06 0.00
340.50 926.50 1326.77 0.00
138.50 932.50 1343.97 0.00
0.50 998.50 1371.02 0.00
559.50 0.50 1212.80 1.00
491.50 135.50 1235.34 1.00
514.50 107.50 1235.51 1.00
803.50 4.50 1242.21 1.00
723.50 8.50 1243.26 1.00
723.50 0.50 1243.34 1.00
717.50 46.50 1243.55 1.00
715.50 70.50 1243.61 1.00
435.50 238.50 1250.56 1.00
783.50 126.50 1252.74 1.00
369.50 322.50 1259.57 1.00
417.50 305.50 1259.62 1.00
359.50 339.50 1259.67 1.00
388.50 307.50 1260.10 1.00
392.50 305.50 1260.10 1.00
396.50 303.50 1260.10 1.00
706.50 261.50 1265.07 1.00
714.50 269.50 1265.13 1.00
551.50 307.50 1265.15 1.00
691.50 253.50 1265.16 1.00
781.50 241.50 1265.33 1.00
589.50 329.50 1266.05 1.00
477.50 295.50 1267.43 1.00
415.50 388.50 1270.63 1.00
434.50 403.50 1270.90 1.00
426.50 371.50 1271.00 1.00
998.50 369.50 1272.11 1.00
677.50 316.50 1272.43 1.00
707.50 392.50 1273.02 1.00
706.50 383.50 1273.05 1.00
884.50 353.50 1273.65 1.00
683.50 373.50 1273.79 1.00
681.50 361.50 1274.09 1.00
954.50 365.50 1274.39 1.00
839.50 380.50 1275.31 1.00
689.50 417.50 1277.63 1.00
687.50 413.50 1277.66 1.00
772.50 435.50 1277.69 1.00
811.50 447.50 1278.88 1.00
782.50 469.50 1279.08 1.00
795.50 463.50 1279.16 1.00
799.50 878.50 1279.65 1.00
796.50 875.50 1279.65 1.00
797.50 876.50 1279.66 1.00
832.50 919.50 1280.06 1.00
721.50 494.50 1284.73 1.00
858.50 777.50 1285.91 1.00
849.50 788.50 1286.07 1.00
743.50 716.50 1286.82 1.00
732.50 575.50 1287.63 1.00
707.50 707.50 1287.63 1.00
881.50 751.50 1288.27 1.00
728.50 555.50 1288.35 1.00
893.50 817.50 1288.72 1.00
709.50 740.50 1289.59 1.00
705.50 656.50 1290.32 1.00
707.50 656.50 1290.33 1.00
920.50 851.50 1290.51 1.00
699.50 566.50 1290.65 1.00
689.50 669.50 1291.38 1.00
691.50 671.50 1291.39 1.00
693.50 673.50 1291.40 1.00
889.50 881.50 1291.58 1.00
887.50 879.50 1291.58 1.00
993.50 856.50 1292.11 1.00
969.50 795.50 1292.23 1.00
692.50 609.50 1292.50 1.00
998.50 827.50 1293.40 1.00
969.50 766.50 1293.71 1.00
998.50 735.50 1295.92 1.00
536.50 537.50 1298.96 1.00
481.50 541.50 1299.06 1.00
479.50 539.50 1299.09 1.00
503.50 558.50 1299.24 1.00
522.50 569.50 1300.29 1.00
599.50 570.50 1300.96 1.00
335.50 582.50 1303.68 1.00
372.50 601.50 1304.07 1.00
389.50 606.50 1304.79 1.00
365.50 619.50 1305.06 1.00
497.50 600.50 1305.25 1.00
547.50 998.50 1305.30 1.00
611.50 624.50 1306.99 1.00
611.50 617.50 1307.12 1.00
598.50 645.50 1308.51 1.00
187.50 642.50 1312.60 1.00
560.50 689.50 1313.84 1.00
439.50 728.50 1314.36 1.00
436.50 717.50 1314.52 1.00
453.50 725.50 1314.83 1.00
451.50 712.50 1314.88 1.00
537.50 717.50 1315.38 1.00
515.50 699.50 1315.79 1.00
517.50 701.50 1315.79 1.00
519.50 703.50 1315.81 1.00
523.50 705.50 1315.84 1.00
486.50 679.50 1316.08 1.00
472.50 681.50 1316.15 1.00
445.50 976.50 1316.53 1.00
437.50 669.50 1317.04 1.00
521.50 677.50 1317.15 1.00
427.50 665.50 1317.21 1.00
423.50 663.50 1317.22 1.00
537.50 851.50 1317.54 1.00
381.50 756.50 1317.85 1.00
453.50 941.50 1318.19 1.00
467.50 940.50 1318.24 1.00
366.50 739.50 1319.23 1.00
407.50 741.50 1319.29 1.00
481.50 911.50 1319.45 1.00
337.50 743.50 1319.53 1.00
497.50 923.50 1319.61 1.00
387.50 730.50 1319.83 1.00
331.50 824.50 1319.84 1.00
448.50 815.50 1319.91 1.00
314.50 737.50 1319.94 1.00
521.50 916.50 1319.95 1.00
441.50 837.50 1320.32 1.00
357.50 763.50 1320.56 1.00
317.50 812.50 1320.67 1.00
317.50 797.50 1320.78 1.00
355.50 827.50 1321.01 1.00
349.50 821.50 1321.11 1.00
347.50 819.50 1321.13 1.00
345.50 817.50 1321.14 1.00
391.50 828.50 1321.20 1.00
390.50 827.50 1321.20 1.00
333.50 809.50 1321.36 1.00
456.50 885.50 1321.99 1.00
431.50 906.50 1322.04 1.00
477.50 822.50 1322.27 1.00
432.50 785.50 1322.48 1.00
467.50 851.50 1322.86 1.00
469.50 775.50 1323.02 1.00
271.50 831.50 1325.10 1.00
351.50 921.50 1327.11 1.00
322.50 897.50 1331.41 1.00
309.50 998.50 1336.49 1.00
226.50 933.50 1339.77 1.00
144.50 797.50 1341.67 1.00
132.50 919.50 1344.37 1.00
151.50 938.50 1344.77 1.00
185.50 929.50 1345.47 1.00
126.50 851.50 1345.96 1.00
129.50 837.50 1346.23 1.00
69.50 881.50 1354.13 1.00
51.50 912.50 1356.06 1.00
0.50 995.50 1371.12 1.00
11.50 998.50 1372.02 1.00
493.17 119.17 1236.04 2.00
539.83 91.83 1237.25 2.00
725.17 1.17 1243.35 2.00
715.83 57.83 1243.64 2.00
437.83 233.83 1250.58 2.00
783.83 111.83 1253.59 2.00
355.17 331.17 1260.05 2.00
387.17 309.17 1260.09 2.00
395.17 305.17 1260.10 2.00
391.17 307.17 1260.10 2.00
415.17 293.17 1260.33 2.00
691.83 251.83 1265.15 2.00
577.83 311.83 1267.32 2.00
763.83 215.83 1267.84 2.00
475.17 289.17 1267.94 2.00
417.17 375.17 1271.10 2.00
679.17 307.17 1272.54 2.00
681.83 361.83 1274.09 2.00
681.17 361.17 1274.09 2.00
971.17 361.17 1274.92 2.00
849.83 361.83 1276.06 2.00
687.83 415.83 1277.64 2.00
687.17 409.17 1277.67 2.00
915.83 341.83 1279.49 2.00
793.17 445.17 1279.52 2.00
725.17 485.17 1284.83 2.00
843.83 777.83 1286.46 2.00
743.17 715.17 1286.82 2.00
869.17 743.17 1288.69 2.00
741.17 555.17 1288.91 2.00
713.17 733.17 1289.62 2.00
705.83 561.83 1290.77 2.00
689.83 671.83 1291.38 2.00
693.83 671.83 1291.39 2.00
693.83 673.83 1291.40 2.00
885.83 879.83 1291.58 2.00
887.17 881.17 1291.58 2.00
995.83 827.83 1293.43 2.00
959.83 777.83 1293.79 2.00
717.17 623.17 1294.24 2.00
995.83 733.83 1295.95 2.00
481.17 539.17 1299.07 2.00
475.17 539.17 1299.08 2.00
503.17 545.17 1300.00 2.00
605.83 551.83 1303.61 2.00
339.83 577.83 1303.71 2.00
387.17 599.17 1304.98 2.00
547.83 997.83 1305.30 2.00
495.17 595.17 1305.32 2.00
611.17 619.17 1307.10 2.00
609.83 617.83 1307.11 2.00
601.17 643.17 1308.53 2.00
183.83 635.83 1312.80 2.00
571.17 685.17 1314.06 2.00
451.17 717.17 1314.90 2.00
515.83 701.83 1315.79 2.00
517.83 703.83 1315.80 2.00
523.83 705.83 1315.84 2.00
521.83 705.83 1315.83 2.00
473.83 681.83 1316.15 2.00
523.83 679.83 1317.14 2.00
447.17 675.17 1317.18 2.00
429.17 665.17 1317.17 2.00
423.83 661.83 1317.19 2.00
425.17 663.17 1317.23 2.00
509.17 677.17 1317.30 2.00
461.17 947.17 1318.36 2.00
489.17 923.17 1319.68 2.00
513.17 925.17 1320.03 2.00
325.17 735.17 1320.08 2.00
383.17 739.17 1320.25 2.00
549.17 893.17 1320.57 2.00
353.17 755.17 1320.82 2.00
351.17 821.17 1321.08 2.00
347.17 821.17 1321.11 2.00
345.17 819.17 1321.13 2.00
335.17 809.17 1321.33 2.00
397.17 717.17 1321.33 2.00
331.83 809.83 1321.36 2.00
467.83 841.83 1322.90 2.00
443.17 895.17 1323.17 2.00
455.83 773.83 1323.27 2.00
475.83 869.83 1323.73 2.00
397.83 797.83 1323.85 2.00
489.17 803.17 1324.32 2.00
339.17 891.17 1332.27 2.00
311.83 991.83 1336.80 2.00
235.17 931.17 1339.87 2.00
159.17 791.17 1342.46 2.00
191.83 935.83 1345.59 2.00
133.83 841.83 1346.30 2.00
163.17 919.17 1346.63 2.00
117.17 829.17 1347.04 2.00
65.83 871.83 1354.48 2.00
53.83 905.83 1356.08 2.00
11.17 995.17 1372.09 2.00
